83.843366 -1015.039159 458.387628
81.903418 -1015.524145 458.424934
79.963471 -1016.009132 458.462241
78.023523 -1016.494119 458.499548
76.083576 -1016.979106 458.536854
74.143629 -1017.464093 458.574161
72.203681 -1017.949080 458.611468
70.263734 -1018.434067 458.648774
68.323786 -1018.919053 458.686081
66.383839 -1019.404040 458.723388
64.443891 -1019.889027 458.760694
62.503944 -1020.374014 458.798001
60.563997 -1020.859001 458.835308
58.624049 -1021.343988 458.872614
56.684102 -1021.828975 458.909921
54.744154 -1022.313961 458.947228
52.804207 -1022.798948 458.984534
50.864260 -1023.283935 459.021841
48.924312 -1023.768922 459.059148
46.984365 -1024.253909 459.096455
45.044417 -1024.738896 459.133761
43.104470 -1025.223883 459.171068
41.164523 -1025.708869 459.208375
39.224575 -1026.193856 459.245681
37.284628 -1026.678843 459.282988
35.344680 -1027.163830 459.320295
33.404733 -1027.648817 459.357601
31.464785 -1028.133804 459.394908
29.524838 -1028.618790 459.432215
27.584891 -1029.103777 459.469521
25.644943 -1029.588764 459.506828
23.704996 -1030.073751 459.544135
21.765048 -1030.558738 459.581441
19.825101 -1031.043725 459.618748
17.885154 -1031.528712 459.656055
15.945206 -1032.013698 459.693361
14.005259 -1032.498685 459.730668
12.065311 -1032.983672 459.767975
10.125364 -1033.468659 459.805281
8.185416 -1033.953646 459.842588
6.245469 -1034.438633 459.879895
4.305522 -1034.923620 459.917202
2.365574 -1035.408606 459.954508
0.000000 -1036.000000 460.000000
-1.769494 -1036.000000 459.067856
-3.538987 -1036.000000 458.135712
-5.308481 -1036.000000 457.203568
-7.077974 -1036.000000 456.271424
-8.847468 -1036.000000 455.339280
-10.616962 -1036.000000 454.407136
-12.386455 -1036.000000 453.474992
-14.155949 -1036.000000 452.542848
-15.925443 -1036.000000 451.610704
-17.694936 -1036.000000 450.678560
-19.464430 -1036.000000 449.746416
-21.233923 -1036.000000 448.814273
-23.003417 -1036.000000 447.882129
-24.772911 -1036.000000 446.949985
-26.542404 -1036.000000 446.017841
-28.311898 -1036.000000 445.085697
-30.081391 -1036.000000 444.153553
-31.850885 -1036.000000 443.221409
-33.620379 -1036.000000 442.289265
-35.389872 -1036.000000 441.357121
-37.159366 -1036.000000 440.424977
-38.928859 -1036.000000 439.492833
-40.698353 -1036.000000 438.560689
-42.467847 -1036.000000 437.628545
-44.237340 -1036.000000 436.696401
-46.006834 -1036.000000 435.764257
-47.776328 -1036.000000 434.832113
-49.545821 -1036.000000 433.899969
-51.315315 -1036.000000 432.967825
-53.084808 -1036.000000 432.035681
-54.854302 -1036.000000 431.103537
-56.623796 -1036.000000 430.171393
-58.393289 -1036.000000 429.239249
-60.162783 -1036.000000 428.307105
-61.932276 -1036.000000 427.374962
-63.701770 -1036.000000 426.442818
-65.471264 -1036.000000 425.510674
-67.240757 -1036.000000 424.578530
-69.010251 -1036.000000 423.646386
-70.779744 -1036.000000 422.714242
-72.549238 -1036.000000 421.782098
-74.318732 -1036.000000 420.849954
-76.088225 -1036.000000 419.917810
-77.857719 -1036.000000 418.985666
-79.627213 -1036.000000 418.053522
-81.396706 -1036.000000 417.121378
-83.166200 -1036.000000 416.189234
-84.935693 -1036.000000 415.257090
-86.705187 -1036.000000 414.324946
-88.474681 -1036.000000 413.392802
-90.244174 -1036.000000 412.460658
-92.013668 -1036.000000 411.528514
-93.783161 -1036.000000 410.596370
-95.552655 -1036.000000 409.664226
-97.322149 -1036.000000 408.732082
-99.091642 -1036.000000 407.799938
-100.861136 -1036.000000 406.867794
-102.630630 -1036.000000 405.935651
-104.400123 -1036.000000 405.003507
-106.169617 -1036.000000 404.071363
-107.939110 -1036.000000 403.139219
-109.708604 -1036.000000 402.207075
-111.478098 -1036.000000 401.274931
-113.247591 -1036.000000 400.342787
-115.017085 -1036.000000 399.410643
-116.786578 -1036.000000 398.478499
-118.556072 -1036.000000 397.546355
-120.325566 -1036.000000 396.614211
-122.095059 -1036.000000 395.682067
-123.864553 -1036.000000 394.749923
-125.634046 -1036.000000 393.817779
-127.403540 -1036.000000 392.885635
-129.173034 -1036.000000 391.953491
-130.942527 -1036.000000 391.021347
-132.712021 -1036.000000 390.089203
-134.481515 -1036.000000 389.157059
-136.251008 -1036.000000 388.224915
-138.020502 -1036.000000 387.292771
-139.789995 -1036.000000 386.360627
-141.559489 -1036.000000 385.428483
-143.328983 -1036.000000 384.496340
-145.098476 -1036.000000 383.564196
-146.867970 -1036.000000 382.632052
-148.637463 -1036.000000 381.699908
-150.406957 -1036.000000 380.767764
-152.176451 -1036.000000 379.835620
-153.945944 -1036.000000 378.903476
-155.715438 -1036.000000 377.971332
-157.484932 -1036.000000 377.039188
-159.254425 -1036.000000 376.107044
-161.023919 -1036.000000 375.174900
-162.793412 -1036.000000 374.242756
-164.562906 -1036.000000 373.310612
-166.332400 -1036.000000 372.378468
-168.101893 -1036.000000 371.446324
-169.871387 -1036.000000 370.514180
-171.640880 -1036.000000 369.582036
-173.410374 -1036.000000 368.649892
-175.179868 -1036.000000 367.717748
-176.949361 -1036.000000 366.785604
-178.718855 -1036.000000 365.853460
-180.488348 -1036.000000 364.921316
-182.257842 -1036.000000 363.989172
-184.027336 -1036.000000 363.057029
-185.796829 -1036.000000 362.124885
-187.566323 -1036.000000 361.192741
-189.335817 -1036.000000 360.260597
-191.105310 -1036.000000 359.328453
-192.874804 -1036.000000 358.396309
-194.644297 -1036.000000 357.464165
-196.413791 -1036.000000 356.532021
-198.183285 -1036.000000 355.599877
-199.952778 -1036.000000 354.667733
-201.722272 -1036.000000 353.735589
-203.491765 -1036.000000 352.803445
-205.261259 -1036.000000 351.871301
-207.030753 -1036.000000 350.939157
-208.800246 -1036.000000 350.007013
-210.569740 -1036.000000 349.074869
-212.339233 -1036.000000 348.142725
-214.108727 -1036.000000 347.210581
-215.878221 -1036.000000 346.278437
-217.647714 -1036.000000 345.346293
-219.417208 -1036.000000 344.414149
-221.186702 -1036.000000 343.482005
-222.956195 -1036.000000 342.549861
-224.725689 -1036.000000 341.617718
-226.495182 -1036.000000 340.685574
-228.264676 -1036.000000 339.753430
-230.034170 -1036.000000 338.821286
-231.803663 -1036.000000 337.889142
-233.573157 -1036.000000 336.956998
-235.342650 -1036.000000 336.024854
-237.112144 -1036.000000 335.092710
-238.881638 -1036.000000 334.160566
-240.651131 -1036.000000 333.228422
-242.420625 -1036.000000 332.296278
-244.190119 -1036.000000 331.364134
-245.959612 -1036.000000 330.431990
-247.729106 -1036.000000 329.499846
-249.498599 -1036.000000 328.567702
-251.268093 -1036.000000 327.635558
-253.037587 -1036.000000 326.703414
-254.807080 -1036.000000 325.771270
-256.576574 -1036.000000 324.839126
-258.346067 -1036.000000 323.906982
-260.115561 -1036.000000 322.974838
-261.885055 -1036.000000 322.042694
-263.654548 -1036.000000 321.110550
-265.424042 -1036.000000 320.178407
-267.193535 -1036.000000 319.246263
-268.963029 -1036.000000 318.314119
-270.732523 -1036.000000 317.381975
-272.502016 -1036.000000 316.449831
-274.271510 -1036.000000 315.517687
-276.041004 -1036.000000 314.585543
-277.810497 -1036.000000 313.653399
-279.579991 -1036.000000 312.721255
-281.349484 -1036.000000 311.789111
-283.118978 -1036.000000 310.856967
-284.888472 -1036.000000 309.924823
-286.657965 -1036.000000 308.992679
-288.427459 -1036.000000 308.060535
-290.196952 -1036.000000 307.128391
-291.966446 -1036.000000 306.196247
-293.735940 -1036.000000 305.264103
-295.505433 -1036.000000 304.331959
-297.274927 -1036.000000 303.399815
-299.044420 -1036.000000 302.467671
-300.813914 -1036.000000 301.535527
-302.583408 -1036.000000 300.603383
-304.352901 -1036.000000 299.671239
-306.122395 -1036.000000 298.739096
-307.891889 -1036.000000 297.806952
-309.661382 -1036.000000 296.874808
-311.430876 -1036.000000 295.942664
-313.200369 -1036.000000 295.010520
-314.969863 -1036.000000 294.078376
-316.739357 -1036.000000 293.146232
-318.508850 -1036.000000 292.214088
-320.278344 -1036.000000 291.281944
-322.047837 -1036.000000 290.349800
-323.817331 -1036.000000 289.417656
-325.586825 -1036.000000 288.485512
-327.356318 -1036.000000 287.553368
-329.125812 -1036.000000 286.621224
-330.895306 -1036.000000 285.689080
-332.664799 -1036.000000 284.756936
-334.434293 -1036.000000 283.824792
-336.203786 -1036.000000 282.892648
-337.973280 -1036.000000 281.960504
-339.742774 -1036.000000 281.028360
-341.512267 -1036.000000 280.096216
-343.281761 -1036.000000 279.164072
-345.051254 -1036.000000 278.231928
-346.820748 -1036.000000 277.299785
-348.590242 -1036.000000 276.367641
-350.359735 -1036.000000 275.435497
-352.129229 -1036.000000 274.503353
-353.898722 -1036.000000 273.571209
-355.668216 -1036.000000 272.639065
-357.437710 -1036.000000 271.706921
-359.207203 -1036.000000 270.774777
-360.976697 -1036.000000 269.842633
-362.746191 -1036.000000 268.910489
-364.515684 -1036.000000 267.978345
-366.285178 -1036.000000 267.046201
-368.054671 -1036.000000 266.114057
-369.824165 -1036.000000 265.181913
-371.593659 -1036.000000 264.249769
-373.363152 -1036.000000 263.317625
-375.132646 -1036.000000 262.385481
-376.902139 -1036.000000 261.453337
-378.671633 -1036.000000 260.521193
-380.441127 -1036.000000 259.589049
-382.210620 -1036.000000 258.656905
-383.980114 -1036.000000 257.724761
-385.749608 -1036.000000 256.792617
-387.519101 -1036.000000 255.860474
-389.288595 -1036.000000 254.928330
-391.058088 -1036.000000 253.996186
-392.827582 -1036.000000 253.064042
-394.597076 -1036.000000 252.131898
-396.366569 -1036.000000 251.199754
-398.136063 -1036.000000 250.267610
-399.905556 -1036.000000 249.335466
-401.675050 -1036.000000 248.403322
-403.444544 -1036.000000 247.471178
-405.214037 -1036.000000 246.539034
-406.983531 -1036.000000 245.606890
-408.753024 -1036.000000 244.674746
-410.522518 -1036.000000 243.742602
-412.292012 -1036.000000 242.810458
-414.061505 -1036.000000 241.878314
-415.830999 -1036.000000 240.946170
-417.600493 -1036.000000 240.014026
-419.369986 -1036.000000 239.081882
-421.139480 -1036.000000 238.149738
-422.908973 -1036.000000 237.217594
-424.678467 -1036.000000 236.285450
-426.447961 -1036.000000 235.353306
-428.217454 -1036.000000 234.421163
-429.986948 -1036.000000 233.489019
-431.756441 -1036.000000 232.556875
-433.525935 -1036.000000 231.624731
-435.295429 -1036.000000 230.692587
-437.064922 -1036.000000 229.760443
-438.834416 -1036.000000 228.828299
-440.603909 -1036.000000 227.896155
-442.373403 -1036.000000 226.964011
-444.142897 -1036.000000 226.031867
-445.912390 -1036.000000 225.099723
-448.000000 -1036.000000 224.000000
-449.771637 -1035.114182 223.723182
-451.543274 -1034.228363 223.446363
-453.314911 -1033.342545 223.169545
-455.086548 -1032.456726 222.892727
-456.858185 -1031.570908 222.615909
-458.629821 -1030.685089 222.339090
-460.401458 -1029.799271 222.062272
-462.173095 -1028.913452 221.785454
-463.944732 -1028.027634 221.508636
-465.716369 -1027.141815 221.231817
-467.488006 -1026.255997 220.954999
-469.259643 -1025.370179 220.678181
-471.031280 -1024.484360 220.401363
-472.802917 -1023.598542 220.124544
-474.574554 -1022.712723 219.847726
-476.346190 -1021.826905 219.570908
-478.117827 -1020.941086 219.294089
-479.889464 -1020.055268 219.017271
-481.661101 -1019.169449 218.740453
-483.432738 -1018.283631 218.463635
-485.204375 -1017.397813 218.186816
-486.976012 -1016.511994 217.909998
-488.747649 -1015.626176 217.633180
-490.519286 -1014.740357 217.356362
-492.290923 -1013.854539 217.079543
-494.062559 -1012.968720 216.802725
-495.834196 -1012.082902 216.525907
-497.605833 -1011.197083 216.249089
-499.377470 -1010.311265 215.972270
-501.149107 -1009.425446 215.695452
-502.920744 -1008.539628 215.418634
-504.692381 -1007.653810 215.141815
-506.464018 -1006.767991 214.864997
-508.235655 -1005.882173 214.588179
-510.007292 -1004.996354 214.311361
-511.778929 -1004.110536 214.034542
-513.550565 -1003.224717 213.757724
-515.322202 -1002.338899 213.480906
-517.093839 -1001.453080 213.204088
-518.865476 -1000.567262 212.927269
-520.637113 -999.681443 212.650451
-522.408750 -998.795625 212.373633
-524.180387 -997.909807 212.096815
-525.952024 -997.023988 211.819996
-527.723661 -996.138170 211.543178
-529.495298 -995.252351 211.266360
-531.266934 -994.366533 210.989541
-533.038571 -993.480714 210.712723
-534.810208 -992.594896 210.435905
-536.581845 -991.709077 210.159087
-538.353482 -990.823259 209.882268
-540.125119 -989.937441 209.605450
-541.896756 -989.051622 209.328632
-543.668393 -988.165804 209.051814
-545.440030 -987.279985 208.774995
-547.211667 -986.394167 208.498177
-548.983304 -985.508348 208.221359
-550.754940 -984.622530 207.944541
-552.526577 -983.736711 207.667722
-554.298214 -982.850893 207.390904
-556.069851 -981.965074 207.114086
-557.841488 -981.079256 206.837267
-559.613125 -980.193438 206.560449
-561.384762 -979.307619 206.283631
-563.156399 -978.421801 206.006813
-564.928036 -977.535982 205.729994
-566.699673 -976.650164 205.453176
-568.471309 -975.764345 205.176358
-570.242946 -974.878527 204.899540
-572.014583 -973.992708 204.622721
-573.786220 -973.106890 204.345903
-575.557857 -972.221071 204.069085
-577.329494 -971.335253 203.792267
-579.101131 -970.449435 203.515448
-580.872768 -969.563616 203.238630
-582.644405 -968.677798 202.961812
-584.416042 -967.791979 202.684994
-586.187678 -966.906161 202.408175
-587.959315 -966.020342 202.131357
-589.730952 -965.134524 201.854539
-591.502589 -964.248705 201.577720
-593.274226 -963.362887 201.300902
-595.045863 -962.477069 201.024084
-596.817500 -961.591250 200.747266
-598.589137 -960.705432 200.470447
-600.360774 -959.819613 200.193629
-602.132411 -958.933795 199.916811
-603.904048 -958.047976 199.639993
-605.675684 -957.162158 199.363174
-607.447321 -956.276339 199.086356
-609.218958 -955.390521 198.809538
-610.990595 -954.504702 198.532720
-612.762232 -953.618884 198.255901
-614.533869 -952.733066 197.979083
-616.305506 -951.847247 197.702265
-618.077143 -950.961429 197.425446
-619.848780 -950.075610 197.148628
-621.620417 -949.189792 196.871810
-623.392053 -948.303973 196.594992
-625.163690 -947.418155 196.318173
-626.935327 -946.532336 196.041355
-628.706964 -945.646518 195.764537
-630.478601 -944.760699 195.487719
-632.250238 -943.874881 195.210900
-634.021875 -942.989063 194.934082
-635.793512 -942.103244 194.657264
-637.565149 -941.217426 194.380446
-639.336786 -940.331607 194.103627
-641.108422 -939.445789 193.826809
-642.880059 -938.559970 193.549991
-644.651696 -937.674152 193.273172
-646.423333 -936.788333 192.996354
-648.194970 -935.902515 192.719536
-649.966607 -935.016696 192.442718
-651.738244 -934.130878 192.165899
-653.509881 -933.245060 191.889081
-655.281518 -932.359241 191.612263
-657.053155 -931.473423 191.335445
-658.824792 -930.587604 191.058626
-660.596428 -929.701786 190.781808
-662.368065 -928.815967 190.504990
-664.139702 -927.930149 190.228172
-665.911339 -927.044330 189.951353
-667.682976 -926.158512 189.674535
-669.454613 -925.272694 189.397717
-671.226250 -924.386875 189.120898
-672.997887 -923.501057 188.844080
-674.769524 -922.615238 188.567262
-676.541161 -921.729420 188.290444
-678.312797 -920.843601 188.013625
-680.084434 -919.957783 187.736807
-681.856071 -919.071964 187.459989
-683.627708 -918.186146 187.183171
-685.399345 -917.300327 186.906352
-687.170982 -916.414509 186.629534
-688.942619 -915.528691 186.352716
-690.714256 -914.642872 186.075898
-692.485893 -913.757054 185.799079
-694.257530 -912.871235 185.522261
-696.029166 -911.985417 185.245443
-697.800803 -911.099598 184.968624
-699.572440 -910.213780 184.691806
-701.344077 -909.327961 184.414988
-703.115714 -908.442143 184.138170
-704.887351 -907.556324 183.861351
-706.658988 -906.670506 183.584533
-708.430625 -905.784688 183.307715
-710.202262 -904.898869 183.030897
-711.973899 -904.013051 182.754078
-713.745536 -903.127232 182.477260
-715.517172 -902.241414 182.200442
-717.288809 -901.355595 181.923624
-719.060446 -900.469777 181.646805
-720.832083 -899.583958 181.369987
-722.603720 -898.698140 181.093169
-724.375357 -897.812322 180.816350
-726.146994 -896.926503 180.539532
-727.918631 -896.040685 180.262714
-729.690268 -895.154866 179.985896
-731.461905 -894.269048 179.709077
-733.233541 -893.383229 179.432259
-735.005178 -892.497411 179.155441
-736.776815 -891.611592 178.878623
-738.548452 -890.725774 178.601804
-740.320089 -889.839955 178.324986
-742.091726 -888.954137 178.048168
-743.863363 -888.068319 177.771350
-745.635000 -887.182500 177.494531
-747.406637 -886.296682 177.217713
-749.178274 -885.410863 176.940895
-750.949911 -884.525045 176.664076
-752.721547 -883.639226 176.387258
-754.493184 -882.753408 176.110440
-756.264821 -881.867589 175.833622
-758.036458 -880.981771 175.556803
-759.808095 -880.095952 175.279985
-761.579732 -879.210134 175.003167
-763.351369 -878.324316 174.726349
-765.123006 -877.438497 174.449530
-766.894643 -876.552679 174.172712
-768.666280 -875.666860 173.895894
-770.437916 -874.781042 173.619076
-772.209553 -873.895223 173.342257
-773.981190 -873.009405 173.065439
-775.752827 -872.123586 172.788621
-777.524464 -871.237768 172.511802
-779.296101 -870.351950 172.234984
-781.067738 -869.466131 171.958166
-782.839375 -868.580313 171.681348
-784.611012 -867.694494 171.404529
-786.382649 -866.808676 171.127711
-788.154285 -865.922857 170.850893
-789.925922 -865.037039 170.574075
-791.697559 -864.151220 170.297256
-793.469196 -863.265402 170.020438
-795.240833 -862.379583 169.743620
-797.012470 -861.493765 169.466802
-798.784107 -860.607947 169.189983
-800.555744 -859.722128 168.913165
-802.327381 -858.836310 168.636347
-804.099018 -857.950491 168.359528
-805.870655 -857.064673 168.082710
-807.642291 -856.178854 167.805892
-809.413928 -855.293036 167.529074
-811.185565 -854.407217 167.252255
-812.957202 -853.521399 166.975437
-814.728839 -852.635580 166.698619
-816.500476 -851.749762 166.421801
-818.272113 -850.863944 166.144982
-820.043750 -849.978125 165.868164
-821.815387 -849.092307 165.591346
-823.587024 -848.206488 165.314528
-825.358660 -847.320670 165.037709
-827.130297 -846.434851 164.760891
-828.901934 -845.549033 164.484073
-830.673571 -844.663214 164.207255
-832.445208 -843.777396 163.930436
-834.216845 -842.891578 163.653618
-835.988482 -842.005759 163.376800
-837.760119 -841.119941 163.099981
-839.531756 -840.234122 162.823163
-841.303393 -839.348304 162.546345
-843.075029 -838.462485 162.269527
-844.846666 -837.576667 161.992708
-846.618303 -836.690848 161.715890
-848.389940 -835.805030 161.439072
-850.161577 -834.919211 161.162254
-851.933214 -834.033393 160.885435
-853.704851 -833.147575 160.608617
-855.476488 -832.261756 160.331799
-857.248125 -831.375938 160.054981
-859.019762 -830.490119 159.778162
-860.791399 -829.604301 159.501344
-862.563035 -828.718482 159.224526
-864.334672 -827.832664 158.947707
-866.106309 -826.946845 158.670889
-867.877946 -826.061027 158.394071
-869.649583 -825.175208 158.117253
-871.421220 -824.289390 157.840434
-873.192857 -823.403572 157.563616
-874.964494 -822.517753 157.286798
-876.736131 -821.631935 157.009980
-878.507768 -820.746116 156.733161
-880.279404 -819.860298 156.456343
-882.051041 -818.974479 156.179525
-883.822678 -818.088661 155.902707
-885.594315 -817.202842 155.625888
-887.365952 -816.317024 155.349070
-889.137589 -815.431206 155.072252
-890.909226 -814.545387 154.795433
-892.680863 -813.659569 154.518615
-894.452500 -812.773750 154.241797
-896.224137 -811.887932 153.964979
-897.995774 -811.002113 153.688160
-899.767410 -810.116295 153.411342
-901.539047 -809.230476 153.134524
-903.310684 -808.344658 152.857706
-905.082321 -807.458839 152.580887
-906.853958 -806.573021 152.304069
-908.625595 -805.687203 152.027251
-910.397232 -804.801384 151.750433
-912.168869 -803.915566 151.473614
-913.940506 -803.029747 151.196796
-915.712143 -802.143929 150.919978
-917.483779 -801.258110 150.643159
-919.255416 -800.372292 150.366341
-921.027053 -799.486473 150.089523
-922.798690 -798.600655 149.812705
-924.570327 -797.714836 149.535886
-926.341964 -796.829018 149.259068
-928.113601 -795.943200 148.982250
-929.885238 -795.057381 148.705432
-931.656875 -794.171563 148.428613
-933.428512 -793.285744 148.151795
-935.200148 -792.399926 147.874977
-936.971785 -791.514107 147.598159
-938.743422 -790.628289 147.321340
-940.515059 -789.742470 147.044522
-942.286696 -788.856652 146.767704
-944.058333 -787.970834 146.490885
-945.829970 -787.085015 146.214067
-947.601607 -786.199197 145.937249
-949.373244 -785.313378 145.660431
-951.144881 -784.427560 145.383612
-952.916518 -783.541741 145.106794
-954.688154 -782.655923 144.829976
-956.459791 -781.770104 144.553158
-960.000000 -780.000000 144.000000
-960.953526 -780.000000 142.241936
-961.907052 -780.000000 140.483873
-962.860578 -780.000000 138.725809
-963.814104 -780.000000 136.967745
-964.767630 -780.000000 135.209681
-965.721156 -780.000000 133.451618
-966.674683 -780.000000 131.693554
-967.628209 -780.000000 129.935490
-968.581735 -780.000000 128.177427
-969.535261 -780.000000 126.419363
-970.488787 -780.000000 124.661299
-971.442313 -780.000000 122.903235
-972.395839 -780.000000 121.145172
-973.349365 -780.000000 119.387108
-974.302891 -780.000000 117.629044
-975.256417 -780.000000 115.870981
-976.209943 -780.000000 114.112917
-977.163469 -780.000000 112.354853
-978.116996 -780.000000 110.596789
-979.070522 -780.000000 108.838726
-980.024048 -780.000000 107.080662
-980.977574 -780.000000 105.322598
-981.931100 -780.000000 103.564535
-982.884626 -780.000000 101.806471
-983.838152 -780.000000 100.048407
-984.791678 -780.000000 98.290344
-985.745204 -780.000000 96.532280
-986.698730 -780.000000 94.774216
-987.652256 -780.000000 93.016152
-988.605782 -780.000000 91.258089
-989.559309 -780.000000 89.500025
-990.512835 -780.000000 87.741961
-991.466361 -780.000000 85.983898
-992.419887 -780.000000 84.225834
-993.373413 -780.000000 82.467770
-994.326939 -780.000000 80.709706
-995.280465 -780.000000 78.951643
-996.233991 -780.000000 77.193579
-997.187517 -780.000000 75.435515
-998.141043 -780.000000 73.677452
-999.094569 -780.000000 71.919388
-1000.048095 -780.000000 70.161324
-1001.001621 -780.000000 68.403260
-1001.955148 -780.000000 66.645197
-1002.908674 -780.000000 64.887133
-1003.862200 -780.000000 63.129069
-1004.815726 -780.000000 61.371006
-1005.769252 -780.000000 59.612942
-1006.722778 -780.000000 57.854878
-1007.676304 -780.000000 56.096814
-1008.629830 -780.000000 54.338751
-1009.583356 -780.000000 52.580687
-1010.536882 -780.000000 50.822623
-1011.490408 -780.000000 49.064560
-1012.443934 -780.000000 47.306496
-1013.397461 -780.000000 45.548432
-1014.350987 -780.000000 43.790368
-1015.304513 -780.000000 42.032305
-1016.258039 -780.000000 40.274241
-1017.211565 -780.000000 38.516177
-1018.165091 -780.000000 36.758114
-1019.118617 -780.000000 35.000050
-1020.072143 -780.000000 33.241986
-1021.025669 -780.000000 31.483922
-1021.979195 -780.000000 29.725859
-1022.932721 -780.000000 27.967795
-1023.886247 -780.000000 26.209731
-1024.839773 -780.000000 24.451668
-1025.793300 -780.000000 22.693604
-1026.746826 -780.000000 20.935540
-1027.700352 -780.000000 19.177476
-1028.653878 -780.000000 17.419413
-1029.607404 -780.000000 15.661349
-1030.560930 -780.000000 13.903285
-1031.514456 -780.000000 12.145222
-1032.467982 -780.000000 10.387158
-1033.421508 -780.000000 8.629094
-1034.375034 -780.000000 6.871031
-1035.328560 -780.000000 5.112967
-1036.282086 -780.000000 3.354903
-1037.235613 -780.000000 1.596839
-1038.189139 -780.000000 -0.161224
-1039.142665 -780.000000 -1.919288
-1040.096191 -780.000000 -3.677352
-1041.049717 -780.000000 -5.435415
-1042.003243 -780.000000 -7.193479
-1042.956769 -780.000000 -8.951543
-1043.910295 -780.000000 -10.709607
-1044.863821 -780.000000 -12.467670
-1045.817347 -780.000000 -14.225734
-1046.770873 -780.000000 -15.983798
-1047.724399 -780.000000 -17.741861
-1048.677926 -780.000000 -19.499925
-1049.631452 -780.000000 -21.257989
-1050.584978 -780.000000 -23.016053
-1051.538504 -780.000000 -24.774116
-1052.492030 -780.000000 -26.532180
-1053.445556 -780.000000 -28.290244
-1054.399082 -780.000000 -30.048307
-1055.352608 -780.000000 -31.806371
-1056.306134 -780.000000 -33.564435
-1057.259660 -780.000000 -35.322499
-1058.213186 -780.000000 -37.080562
-1059.166712 -780.000000 -38.838626
-1060.120238 -780.000000 -40.596690
-1061.073765 -780.000000 -42.354753
-1062.027291 -780.000000 -44.112817
-1062.980817 -780.000000 -45.870881
-1063.934343 -780.000000 -47.628945
-1064.887869 -780.000000 -49.387008
-1065.841395 -780.000000 -51.145072
-1066.794921 -780.000000 -52.903136
-1067.748447 -780.000000 -54.661199
-1068.701973 -780.000000 -56.419263
-1069.655499 -780.000000 -58.177327
-1070.609025 -780.000000 -59.935391
-1071.562551 -780.000000 -61.693454
-1072.516078 -780.000000 -63.451518
-1073.469604 -780.000000 -65.209582
-1074.423130 -780.000000 -66.967645
-1075.376656 -780.000000 -68.725709
-1076.330182 -780.000000 -70.483773
-1077.283708 -780.000000 -72.241837
-1078.237234 -780.000000 -73.999900
-1079.190760 -780.000000 -75.757964
-1080.144286 -780.000000 -77.516028
-1081.097812 -780.000000 -79.274091
-1082.051338 -780.000000 -81.032155
-1083.004864 -780.000000 -82.790219
-1083.958390 -780.000000 -84.548282
-1084.911917 -780.000000 -86.306346
-1085.865443 -780.000000 -88.064410
-1086.818969 -780.000000 -89.822474
-1088.000000 -780.000000 -92.000000
-1090.000000 -780.000000 -92.000000
-1092.000000 -780.000000 -92.000000
-1094.000000 -780.000000 -92.000000
-1096.000000 -780.000000 -92.000000
-1098.000000 -780.000000 -92.000000
-1100.000000 -780.000000 -92.000000
-1102.000000 -780.000000 -92.000000
-1104.000000 -780.000000 -92.000000
-1106.000000 -780.000000 -92.000000
-1108.000000 -780.000000 -92.000000
-1110.000000 -780.000000 -92.000000
-1112.000000 -780.000000 -92.000000
-1114.000000 -780.000000 -92.000000
-1116.000000 -780.000000 -92.000000
-1118.000000 -780.000000 -92.000000
-1120.000000 -780.000000 -92.000000
-1122.000000 -780.000000 -92.000000
-1124.000000 -780.000000 -92.000000
-1126.000000 -780.000000 -92.000000
-1128.000000 -780.000000 -92.000000
-1130.000000 -780.000000 -92.000000
-1132.000000 -780.000000 -92.000000
-1134.000000 -780.000000 -92.000000
-1136.000000 -780.000000 -92.000000
-1138.000000 -780.000000 -92.000000
-1140.000000 -780.000000 -92.000000
-1142.000000 -780.000000 -92.000000
-1144.000000 -780.000000 -92.000000
-1146.000000 -780.000000 -92.000000
-1148.000000 -780.000000 -92.000000
-1150.000000 -780.000000 -92.000000
-1152.000000 -780.000000 -92.000000
-1154.000000 -780.000000 -92.000000
-1156.000000 -780.000000 -92.000000
-1158.000000 -780.000000 -92.000000
-1160.000000 -780.000000 -92.000000
-1162.000000 -780.000000 -92.000000
-1164.000000 -780.000000 -92.000000
-1166.000000 -780.000000 -92.000000
-1168.000000 -780.000000 -92.000000
-1170.000000 -780.000000 -92.000000
-1172.000000 -780.000000 -92.000000
-1174.000000 -780.000000 -92.000000
-1176.000000 -780.000000 -92.000000
-1178.000000 -780.000000 -92.000000
-1180.000000 -780.000000 -92.000000
-1182.000000 -780.000000 -92.000000
-1184.000000 -780.000000 -92.000000
-1186.000000 -780.000000 -92.000000
-1188.000000 -780.000000 -92.000000
-1190.000000 -780.000000 -92.000000
-1192.000000 -780.000000 -92.000000
-1194.000000 -780.000000 -92.000000
-1196.000000 -780.000000 -92.000000
-1198.000000 -780.000000 -92.000000
-1200.000000 -780.000000 -92.000000
-1202.000000 -780.000000 -92.000000
-1204.000000 -780.000000 -92.000000
-1206.000000 -780.000000 -92.000000
-1208.000000 -780.000000 -92.000000
-1210.000000 -780.000000 -92.000000
-1212.000000 -780.000000 -92.000000
-1214.000000 -780.000000 -92.000000
-1216.000000 -780.000000 -92.000000
-1218.000000 -780.000000 -92.000000
-1220.000000 -780.000000 -92.000000
-1222.000000 -780.000000 -92.000000
-1224.000000 -780.000000 -92.000000
-1226.000000 -780.000000 -92.000000
-1228.000000 -780.000000 -92.000000
-1230.000000 -780.000000 -92.000000
-1232.000000 -780.000000 -92.000000
-1234.000000 -780.000000 -92.000000
-1236.000000 -780.000000 -92.000000
-1238.000000 -780.000000 -92.000000
-1240.000000 -780.000000 -92.000000
-1242.000000 -780.000000 -92.000000
-1244.000000 -780.000000 -92.000000
-1246.000000 -780.000000 -92.000000
-1248.000000 -780.000000 -92.000000
-1250.000000 -780.000000 -92.000000
-1252.000000 -780.000000 -92.000000
-1254.000000 -780.000000 -92.000000
-1256.000000 -780.000000 -92.000000
-1258.000000 -780.000000 -92.000000
-1260.000000 -780.000000 -92.000000
-1262.000000 -780.000000 -92.000000
-1264.000000 -780.000000 -92.000000
-1266.000000 -780.000000 -92.000000
-1268.000000 -780.000000 -92.000000
-1270.000000 -780.000000 -92.000000
-1272.000000 -780.000000 -92.000000
-1274.000000 -780.000000 -92.000000
-1276.000000 -780.000000 -92.000000
-1278.000000 -780.000000 -92.000000
-1280.000000 -780.000000 -92.000000
-1282.000000 -780.000000 -92.000000
-1284.000000 -780.000000 -92.000000
-1286.000000 -780.000000 -92.000000
-1288.000000 -780.000000 -92.000000
-1290.000000 -780.000000 -92.000000
-1292.000000 -780.000000 -92.000000
-1294.000000 -780.000000 -92.000000
-1296.000000 -780.000000 -92.000000
-1298.000000 -780.000000 -92.000000
-1300.000000 -780.000000 -92.000000
-1302.000000 -780.000000 -92.000000
-1304.000000 -780.000000 -92.000000
-1306.000000 -780.000000 -92.000000
-1308.000000 -780.000000 -92.000000
-1310.000000 -780.000000 -92.000000
-1312.000000 -780.000000 -92.000000
-1314.000000 -780.000000 -92.000000
-1316.000000 -780.000000 -92.000000
-1318.000000 -780.000000 -92.000000
-1320.000000 -780.000000 -92.000000
-1322.000000 -780.000000 -92.000000
-1324.000000 -780.000000 -92.000000
-1326.000000 -780.000000 -92.000000
-1328.000000 -780.000000 -92.000000
-1330.000000 -780.000000 -92.000000
-1332.000000 -780.000000 -92.000000
-1334.000000 -780.000000 -92.000000
-1336.000000 -780.000000 -92.000000
-1338.000000 -780.000000 -92.000000
-1340.000000 -780.000000 -92.000000
-1344.000000 -780.000000 -92.000000
-1346.000000 -780.000000 -92.000000
-1348.000000 -780.000000 -92.000000
-1350.000000 -780.000000 -92.000000
-1352.000000 -780.000000 -92.000000
-1354.000000 -780.000000 -92.000000
-1356.000000 -780.000000 -92.000000
-1358.000000 -780.000000 -92.000000
-1360.000000 -780.000000 -92.000000
-1362.000000 -780.000000 -92.000000
-1364.000000 -780.000000 -92.000000
-1366.000000 -780.000000 -92.000000
-1368.000000 -780.000000 -92.000000
-1370.000000 -780.000000 -92.000000
-1372.000000 -780.000000 -92.000000
-1374.000000 -780.000000 -92.000000
-1376.000000 -780.000000 -92.000000
-1378.000000 -780.000000 -92.000000
-1380.000000 -780.000000 -92.000000
-1382.000000 -780.000000 -92.000000
-1384.000000 -780.000000 -92.000000
-1386.000000 -780.000000 -92.000000
-1388.000000 -780.000000 -92.000000
-1390.000000 -780.000000 -92.000000
-1392.000000 -780.000000 -92.000000
-1394.000000 -780.000000 -92.000000
-1396.000000 -780.000000 -92.000000
-1398.000000 -780.000000 -92.000000
-1400.000000 -780.000000 -92.000000
-1402.000000 -780.000000 -92.000000
-1404.000000 -780.000000 -92.000000
-1406.000000 -780.000000 -92.000000
-1408.000000 -780.000000 -92.000000
-1410.000000 -780.000000 -92.000000
-1412.000000 -780.000000 -92.000000
-1414.000000 -780.000000 -92.000000
-1416.000000 -780.000000 -92.000000
-1418.000000 -780.000000 -92.000000
-1420.000000 -780.000000 -92.000000
-1422.000000 -780.000000 -92.000000
-1424.000000 -780.000000 -92.000000
-1426.000000 -780.000000 -92.000000
-1428.000000 -780.000000 -92.000000
-1430.000000 -780.000000 -92.000000
-1432.000000 -780.000000 -92.000000
-1434.000000 -780.000000 -92.000000
-1436.000000 -780.000000 -92.000000
-1438.000000 -780.000000 -92.000000
-1440.000000 -780.000000 -92.000000
-1442.000000 -780.000000 -92.000000
-1444.000000 -780.000000 -92.000000
-1446.000000 -780.000000 -92.000000
-1448.000000 -780.000000 -92.000000
-1450.000000 -780.000000 -92.000000
-1452.000000 -780.000000 -92.000000
-1454.000000 -780.000000 -92.000000
-1456.000000 -780.000000 -92.000000
-1458.000000 -780.000000 -92.000000
-1460.000000 -780.000000 -92.000000
-1462.000000 -780.000000 -92.000000
-1464.000000 -780.000000 -92.000000
-1466.000000 -780.000000 -92.000000
-1468.000000 -780.000000 -92.000000
-1472.000000 -780.000000 -92.000000
-1474.000000 -780.000000 -92.000000
-1476.000000 -780.000000 -92.000000
-1478.000000 -780.000000 -92.000000
-1480.000000 -780.000000 -92.000000
-1482.000000 -780.000000 -92.000000
-1484.000000 -780.000000 -92.000000
-1486.000000 -780.000000 -92.000000
-1488.000000 -780.000000 -92.000000
-1490.000000 -780.000000 -92.000000
-1492.000000 -780.000000 -92.000000
-1494.000000 -780.000000 -92.000000
-1496.000000 -780.000000 -92.000000
-1498.000000 -780.000000 -92.000000
-1500.000000 -780.000000 -92.000000
-1502.000000 -780.000000 -92.000000
-1504.000000 -780.000000 -92.000000
-1506.000000 -780.000000 -92.000000
-1508.000000 -780.000000 -92.000000
-1510.000000 -780.000000 -92.000000
-1512.000000 -780.000000 -92.000000
-1514.000000 -780.000000 -92.000000
-1516.000000 -780.000000 -92.000000
-1518.000000 -780.000000 -92.000000
-1520.000000 -780.000000 -92.000000
-1522.000000 -780.000000 -92.000000
-1524.000000 -780.000000 -92.000000
-1526.000000 -780.000000 -92.000000
-1528.000000 -780.000000 -92.000000
-1530.000000 -780.000000 -92.000000
-1532.000000 -780.000000 -92.000000
-1534.000000 -780.000000 -92.000000
-1536.000000 -780.000000 -92.000000
-1538.000000 -780.000000 -92.000000
-1540.000000 -780.000000 -92.000000
-1542.000000 -780.000000 -92.000000
-1544.000000 -780.000000 -92.000000
-1546.000000 -780.000000 -92.000000
-1548.000000 -780.000000 -92.000000
-1550.000000 -780.000000 -92.000000
-1552.000000 -780.000000 -92.000000
-1554.000000 -780.000000 -92.000000
-1556.000000 -780.000000 -92.000000
-1558.000000 -780.000000 -92.000000
-1560.000000 -780.000000 -92.000000
-1562.000000 -780.000000 -92.000000
-1564.000000 -780.000000 -92.000000
-1566.000000 -780.000000 -92.000000
-1568.000000 -780.000000 -92.000000
-1570.000000 -780.000000 -92.000000
-1572.000000 -780.000000 -92.000000
-1574.000000 -780.000000 -92.000000
-1576.000000 -780.000000 -92.000000
-1578.000000 -780.000000 -92.000000
-1580.000000 -780.000000 -92.000000
-1582.000000 -780.000000 -92.000000
-1584.000000 -780.000000 -92.000000
-1586.000000 -780.000000 -92.000000
-1588.000000 -780.000000 -92.000000
-1590.000000 -780.000000 -92.000000
-1592.000000 -780.000000 -92.000000
-1594.000000 -780.000000 -92.000000
-1596.000000 -780.000000 -92.000000
-1598.000000 -780.000000 -92.000000
-1600.000000 -780.000000 -92.000000
-1602.000000 -780.000000 -92.000000
-1604.000000 -780.000000 -92.000000
-1606.000000 -780.000000 -92.000000
-1608.000000 -780.000000 -92.000000
-1610.000000 -780.000000 -92.000000
-1612.000000 -780.000000 -92.000000
-1614.000000 -780.000000 -92.000000
-1616.000000 -780.000000 -92.000000
-1618.000000 -780.000000 -92.000000
-1620.000000 -780.000000 -92.000000
-1622.000000 -780.000000 -92.000000
-1624.000000 -780.000000 -92.000000
-1626.000000 -780.000000 -92.000000
-1628.000000 -780.000000 -92.000000
-1630.000000 -780.000000 -92.000000
-1632.000000 -780.000000 -92.000000
-1634.000000 -780.000000 -92.000000
-1636.000000 -780.000000 -92.000000
-1638.000000 -780.000000 -92.000000
-1640.000000 -780.000000 -92.000000
-1642.000000 -780.000000 -92.000000
-1644.000000 -780.000000 -92.000000
-1646.000000 -780.000000 -92.000000
-1648.000000 -780.000000 -92.000000
-1650.000000 -780.000000 -92.000000
-1652.000000 -780.000000 -92.000000
-1654.000000 -780.000000 -92.000000
-1656.000000 -780.000000 -92.000000
-1658.000000 -780.000000 -92.000000
-1660.000000 -780.000000 -92.000000
-1662.000000 -780.000000 -92.000000
-1664.000000 -780.000000 -92.000000
-1666.000000 -780.000000 -92.000000
-1668.000000 -780.000000 -92.000000
-1670.000000 -780.000000 -92.000000
-1672.000000 -780.000000 -92.000000
-1674.000000 -780.000000 -92.000000
-1676.000000 -780.000000 -92.000000
-1678.000000 -780.000000 -92.000000
-1680.000000 -780.000000 -92.000000
-1682.000000 -780.000000 -92.000000
-1684.000000 -780.000000 -92.000000
-1686.000000 -780.000000 -92.000000
-1688.000000 -780.000000 -92.000000
-1690.000000 -780.000000 -92.000000
-1692.000000 -780.000000 -92.000000
-1694.000000 -780.000000 -92.000000
-1696.000000 -780.000000 -92.000000
-1698.000000 -780.000000 -92.000000
-1700.000000 -780.000000 -92.000000
-1702.000000 -780.000000 -92.000000
-1704.000000 -780.000000 -92.000000
-1706.000000 -780.000000 -92.000000
-1708.000000 -780.000000 -92.000000
-1710.000000 -780.000000 -92.000000
-1712.000000 -780.000000 -92.000000
-1714.000000 -780.000000 -92.000000
-1716.000000 -780.000000 -92.000000
-1718.000000 -780.000000 -92.000000
-1720.000000 -780.000000 -92.000000
-1722.000000 -780.000000 -92.000000
-1724.000000 -780.000000 -92.000000
-1728.000000 -780.000000 -92.000000
-1729.703926 -778.952796 -92.000000
-1731.407852 -777.905591 -92.000000
-1733.111777 -776.858387 -92.000000
-1734.815703 -775.811183 -92.000000
-1736.519629 -774.763978 -92.000000
-1738.223555 -773.716774 -92.000000
-1739.927480 -772.669569 -92.000000
-1741.631406 -771.622365 -92.000000
-1743.335332 -770.575161 -92.000000
-1745.039258 -769.527956 -92.000000
-1746.743183 -768.480752 -92.000000
-1748.447109 -767.433548 -92.000000
-1750.151035 -766.386343 -92.000000
-1751.854961 -765.339139 -92.000000
-1753.558886 -764.291934 -92.000000
-1755.262812 -763.244730 -92.000000
-1756.966738 -762.197526 -92.000000
-1758.670664 -761.150321 -92.000000
-1760.374589 -760.103117 -92.000000
-1762.078515 -759.055913 -92.000000
-1763.782441 -758.008708 -92.000000
-1765.486367 -756.961504 -92.000000
-1767.190293 -755.914299 -92.000000
-1768.894218 -754.867095 -92.000000
-1770.598144 -753.819891 -92.000000
-1772.302070 -752.772686 -92.000000
-1774.005996 -751.725482 -92.000000
-1775.709921 -750.678278 -92.000000
-1777.413847 -749.631073 -92.000000
-1779.117773 -748.583869 -92.000000
-1780.821699 -747.536664 -92.000000
-1782.525624 -746.489460 -92.000000
-1784.229550 -745.442256 -92.000000
-1785.933476 -744.395051 -92.000000
-1787.637402 -743.347847 -92.000000
-1789.341327 -742.300643 -92.000000
-1791.045253 -741.253438 -92.000000
-1792.749179 -740.206234 -92.000000
-1794.453105 -739.159029 -92.000000
-1796.157030 -738.111825 -92.000000
-1797.860956 -737.064621 -92.000000
-1799.564882 -736.017416 -92.000000
-1801.268808 -734.970212 -92.000000
-1802.972733 -733.923008 -92.000000
-1804.676659 -732.875803 -92.000000
-1806.380585 -731.828599 -92.000000
-1808.084511 -730.781394 -92.000000
-1809.788437 -729.734190 -92.000000
-1811.492362 -728.686986 -92.000000
-1813.196288 -727.639781 -92.000000
-1814.900214 -726.592577 -92.000000
-1816.604140 -725.545373 -92.000000
-1818.308065 -724.498168 -92.000000
-1820.011991 -723.450964 -92.000000
-1821.715917 -722.403759 -92.000000
-1823.419843 -721.356555 -92.000000
-1825.123768 -720.309351 -92.000000
-1826.827694 -719.262146 -92.000000
-1828.531620 -718.214942 -92.000000
-1830.235546 -717.167738 -92.000000
-1831.939471 -716.120533 -92.000000
-1833.643397 -715.073329 -92.000000
-1835.347323 -714.026124 -92.000000
-1837.051249 -712.978920 -92.000000
-1838.755174 -711.931716 -92.000000
-1840.459100 -710.884511 -92.000000
-1842.163026 -709.837307 -92.000000
-1843.866952 -708.790103 -92.000000
-1845.570878 -707.742898 -92.000000
-1847.274803 -706.695694 -92.000000
-1848.978729 -705.648489 -92.000000
-1850.682655 -704.601285 -92.000000
-1852.386581 -703.554081 -92.000000
-1854.090506 -702.506876 -92.000000
-1855.794432 -701.459672 -92.000000
-1857.498358 -700.412468 -92.000000
-1859.202284 -699.365263 -92.000000
-1860.906209 -698.318059 -92.000000
-1862.610135 -697.270854 -92.000000
-1864.314061 -696.223650 -92.000000
-1866.017987 -695.176446 -92.000000
-1867.721912 -694.129241 -92.000000
-1869.425838 -693.082037 -92.000000
-1871.129764 -692.034833 -92.000000
-1872.833690 -690.987628 -92.000000
-1874.537615 -689.940424 -92.000000
-1876.241541 -688.893219 -92.000000
-1877.945467 -687.846015 -92.000000
-1879.649393 -686.798811 -92.000000
-1881.353318 -685.751606 -92.000000
-1883.057244 -684.704402 -92.000000
-1884.761170 -683.657198 -92.000000
-1886.465096 -682.609993 -92.000000
-1888.169022 -681.562789 -92.000000
-1889.872947 -680.515584 -92.000000
-1891.576873 -679.468380 -92.000000
-1893.280799 -678.421176 -92.000000
-1894.984725 -677.373971 -92.000000
-1896.688650 -676.326767 -92.000000
-1898.392576 -675.279563 -92.000000
-1900.096502 -674.232358 -92.000000
-1901.800428 -673.185154 -92.000000
-1903.504353 -672.137949 -92.000000
-1905.208279 -671.090745 -92.000000
-1906.912205 -670.043541 -92.000000
-1908.616131 -668.996336 -92.000000
-1910.320056 -667.949132 -92.000000
-1912.023982 -666.901928 -92.000000
-1913.727908 -665.854723 -92.000000
-1915.431834 -664.807519 -92.000000
-1917.135759 -663.760314 -92.000000
-1918.839685 -662.713110 -92.000000
-1920.543611 -661.665906 -92.000000
-1922.247537 -660.618701 -92.000000
-1923.951463 -659.571497 -92.000000
-1925.655388 -658.524293 -92.000000
-1927.359314 -657.477088 -92.000000
-1929.063240 -656.429884 -92.000000
-1930.767166 -655.382679 -92.000000
-1932.471091 -654.335475 -92.000000
-1934.175017 -653.288271 -92.000000
-1935.878943 -652.241066 -92.000000
-1937.582869 -651.193862 -92.000000
-1939.286794 -650.146658 -92.000000
-1940.990720 -649.099453 -92.000000
-1942.694646 -648.052249 -92.000000
-1944.398572 -647.005045 -92.000000
-1946.102497 -645.957840 -92.000000
-1947.806423 -644.910636 -92.000000
-1949.510349 -643.863431 -92.000000
-1951.214275 -642.816227 -92.000000
-1952.918200 -641.769023 -92.000000
-1954.622126 -640.721818 -92.000000
-1956.326052 -639.674614 -92.000000
-1958.029978 -638.627410 -92.000000
-1959.733904 -637.580205 -92.000000
-1961.437829 -636.533001 -92.000000
-1963.141755 -635.485796 -92.000000
-1964.845681 -634.438592 -92.000000
-1966.549607 -633.391388 -92.000000
-1968.253532 -632.344183 -92.000000
-1969.957458 -631.296979 -92.000000
-1971.661384 -630.249775 -92.000000
-1973.365310 -629.202570 -92.000000
-1975.069235 -628.155366 -92.000000
-1976.773161 -627.108161 -92.000000
-1978.477087 -626.060957 -92.000000
-1980.181013 -625.013753 -92.000000
-1981.884938 -623.966548 -92.000000
-1983.588864 -622.919344 -92.000000
-1985.292790 -621.872140 -92.000000
-1986.996716 -620.824935 -92.000000
-1988.700641 -619.777731 -92.000000
-1990.404567 -618.730526 -92.000000
-1992.108493 -617.683322 -92.000000
-1993.812419 -616.636118 -92.000000
-1995.516344 -615.588913 -92.000000
-1997.220270 -614.541709 -92.000000
-1998.924196 -613.494505 -92.000000
-2000.628122 -612.447300 -92.000000
-2002.332048 -611.400096 -92.000000
-2004.035973 -610.352891 -92.000000
-2005.739899 -609.305687 -92.000000
-2007.443825 -608.258483 -92.000000
-2009.147751 -607.211278 -92.000000
-2010.851676 -606.164074 -92.000000
-2012.555602 -605.116870 -92.000000
-2014.259528 -604.069665 -92.000000
-2015.963454 -603.022461 -92.000000
-2017.667379 -601.975256 -92.000000
-2019.371305 -600.928052 -92.000000
-2021.075231 -599.880848 -92.000000
-2022.779157 -598.833643 -92.000000
-2024.483082 -597.786439 -92.000000
-2026.187008 -596.739235 -92.000000
-2027.890934 -595.692030 -92.000000
-2029.594860 -594.644826 -92.000000
-2031.298785 -593.597621 -92.000000
-2033.002711 -592.550417 -92.000000
-2034.706637 -591.503213 -92.000000
-2036.410563 -590.456008 -92.000000
-2038.114489 -589.408804 -92.000000
-2039.818414 -588.361600 -92.000000
-2041.522340 -587.314395 -92.000000
-2043.226266 -586.267191 -92.000000
-2044.930192 -585.219986 -92.000000
-2046.634117 -584.172782 -92.000000
-2048.338043 -583.125578 -92.000000
-2050.041969 -582.078373 -92.000000
-2051.745895 -581.031169 -92.000000
-2053.449820 -579.983965 -92.000000
-2055.153746 -578.936760 -92.000000
-2056.857672 -577.889556 -92.000000
-2058.561598 -576.842351 -92.000000
-2060.265523 -575.795147 -92.000000
-2061.969449 -574.747943 -92.000000
-2063.673375 -573.700738 -92.000000
-2065.377301 -572.653534 -92.000000
-2067.081226 -571.606330 -92.000000
-2068.785152 -570.559125 -92.000000
-2070.489078 -569.511921 -92.000000
-2072.193004 -568.464716 -92.000000
-2073.896929 -567.417512 -92.000000
-2075.600855 -566.370308 -92.000000
-2077.304781 -565.323103 -92.000000
-2079.008707 -564.275899 -92.000000
-2080.712633 -563.228695 -92.000000
-2082.416558 -562.181490 -92.000000
-2084.120484 -561.134286 -92.000000
-2085.824410 -560.087081 -92.000000
-2087.528336 -559.039877 -92.000000
-2089.232261 -557.992673 -92.000000
-2090.936187 -556.945468 -92.000000
-2092.640113 -555.898264 -92.000000
-2094.344039 -554.851060 -92.000000
-2096.047964 -553.803855 -92.000000
-2097.751890 -552.756651 -92.000000
-2099.455816 -551.709446 -92.000000
-2101.159742 -550.662242 -92.000000
-2102.863667 -549.615038 -92.000000
-2104.567593 -548.567833 -92.000000
-2106.271519 -547.520629 -92.000000
-2107.975445 -546.473425 -92.000000
-2109.679370 -545.426220 -92.000000
-2112.000000 -544.000000 -92.000000
-2112.868586 -542.537119 -90.948554
-2113.737171 -541.074238 -89.897109
-2114.605757 -539.611357 -88.845663
-2115.474342 -538.148476 -87.794217
-2116.342928 -536.685595 -86.742771
-2117.211514 -535.222714 -85.691326
-2118.080099 -533.759833 -84.639880
-2118.948685 -532.296952 -83.588434
-2119.817270 -530.834071 -82.536988
-2120.685856 -529.371190 -81.485543
-2121.554442 -527.908309 -80.434097
-2122.423027 -526.445428 -79.382651
-2123.291613 -524.982547 -78.331205
-2124.160199 -523.519666 -77.279760
-2125.028784 -522.056785 -76.228314
-2125.897370 -520.593904 -75.176868
-2126.765955 -519.131023 -74.125422
-2127.634541 -517.668142 -73.073977
-2128.503127 -516.205260 -72.022531
-2129.371712 -514.742379 -70.971085
-2130.240298 -513.279498 -69.919640
-2131.108883 -511.816617 -68.868194
-2131.977469 -510.353736 -67.816748
-2132.846055 -508.890855 -66.765302
-2133.714640 -507.427974 -65.713857
-2134.583226 -505.965093 -64.662411
-2135.451811 -504.502212 -63.610965
-2136.320397 -503.039331 -62.559519
-2137.188983 -501.576450 -61.508074
-2138.057568 -500.113569 -60.456628
-2138.926154 -498.650688 -59.405182
-2139.794740 -497.187807 -58.353736
-2140.663325 -495.724926 -57.302291
-2141.531911 -494.262045 -56.250845
-2142.400496 -492.799164 -55.199399
-2143.269082 -491.336283 -54.147953
-2144.137668 -489.873402 -53.096508
-2145.006253 -488.410521 -52.045062
-2145.874839 -486.947640 -50.993616
-2146.743424 -485.484759 -49.942170
-2147.612010 -484.021878 -48.890725
-2148.480596 -482.558997 -47.839279
-2149.349181 -481.096116 -46.787833
-2150.217767 -479.633235 -45.736388
-2151.086352 -478.170354 -44.684942
-2151.954938 -476.707473 -43.633496
-2152.823524 -475.244592 -42.582050
-2153.692109 -473.781711 -41.530605
-2154.560695 -472.318830 -40.479159
-2155.429280 -470.855949 -39.427713
-2156.297866 -469.393068 -38.376267
-2157.166452 -467.930187 -37.324822
-2158.035037 -466.467306 -36.273376
-2158.903623 -465.004425 -35.221930
-2159.772209 -463.541544 -34.170484
-2160.640794 -462.078662 -33.119039
-2161.509380 -460.615781 -32.067593
-2162.377965 -459.152900 -31.016147
-2163.246551 -457.690019 -29.964701
-2164.115137 -456.227138 -28.913256
-2164.983722 -454.764257 -27.861810
-2165.852308 -453.301376 -26.810364
-2166.720893 -451.838495 -25.758919
-2167.589479 -450.375614 -24.707473
-2168.458065 -448.912733 -23.656027
-2169.326650 -447.449852 -22.604581
-2170.195236 -445.986971 -21.553136
-2171.063821 -444.524090 -20.501690
-2171.932407 -443.061209 -19.450244
-2172.800993 -441.598328 -18.398798
-2173.669578 -440.135447 -17.347353
-2174.538164 -438.672566 -16.295907
-2175.406750 -437.209685 -15.244461
-2176.275335 -435.746804 -14.193015
-2177.143921 -434.283923 -13.141570
-2178.012506 -432.821042 -12.090124
-2178.881092 -431.358161 -11.038678
-2179.749678 -429.895280 -9.987232
-2180.618263 -428.432399 -8.935787
-2181.486849 -426.969518 -7.884341
-2182.355434 -425.506637 -6.832895
-2183.224020 -424.043756 -5.781449
-2184.092606 -422.580875 -4.730004
-2184.961191 -421.117994 -3.678558
-2185.829777 -419.655113 -2.627112
-2186.698362 -418.192232 -1.575667
